# 3D point list with one line of data per point:
#   POINT3D_ID, X, Y, Z, R, G, B, ERROR, TRACK[] as (IMAGE_ID, POINT2D_IDX)
# Number of points: 379, mean track length: 5.3492346030615874
7319 -0.25451946101345369 -0.36892020427277167 5.5799998637073367 124 147 177 0.23134617549516334 2 107 3 123 4 111 7 144 10 125 1 119
7322 -0.34660614524078254 -0.14382835544174791 6.368406232068561 66 78 94 1.9521496119077597 3 355 4 182 100 137 1 122 94 115 7 282
7326 -0.2658161491540576 -0.20436826486861323 6.4956730487527494 42 48 61 1.7262788931333635 94 292 1 126 100 297
7331 0.46656617815585533 1.5370019682306026 5.6891540859839616 13 25 36 1.9915519564529394 2 323 3 188 7 236 10 156 28 54 96 114
7335 -0.38471328243168462 1.2063499415511842 5.3762480133838473 99 122 149 0.94079138787619354 3 294 4 144 10 375 1 136 4 336
7336 -0.2294779359420881 1.2015415712358497 5.4404775171531679 83 109 139 0.49869750585295725 4 145 10 121 1 137
7337 0.70927832040130023 1.2795486560575042 5.0677757671693389 18 24 35 0.79951254740505717 2 183 3 193 4 146 7 198 10 159 16 189 51 137 60 159 65 260 1 138 56 252
7338 -0.86342914092058709 1.096594153948002 6.1165548143252604 106 125 151 0.44264511873086326 2 181 3 136 4 201 7 359 10 185 16 391 28 343 94 208 100 194 1 139 92 233 96 202
7340 1.6885027203599279 1.2167144229804481 5.0063733855351877 67 81 103 1.0404063826200258 3 109 4 99 56 113 60 194 64 108 65 111 91 82 99 78 1 141 93 74
7341 0.11249243542520254 0.92073754369094218 5.2140233362464583 45 69 97 1.4800533498306876 2 275 3 200 4 155 10 222 1 142 3 202
7342 -0.39392233921668807 0.82644238650600288 5.3897780878630011 58 85 116 1.8592859223992433 4 156 10 165 1 143 7 161 28 203 29 172 16 153
7347 -1.0126595683214312 0.72922946564323499 6.2077124370354575 116 143 174 0.40052535403732109 2 151 7 163 10 169 16 155 1 150
7348 -1.8028194790710377 0.75047686238424416 7.1080060856504295 109 126 151 1.6635805101351411 10 120 28 101 1 151
7350 0.2391466530136582 0.17392885719327716 5.4913402261757289 55 66 89 0.74149348135628157 3 211 4 114 1 153
7356 4.1740056195757926 0.53041314911698467 10.197423054045977 9 22 42 3.1482932419028735 56 214 1 162
7358 0.29759251677293952 0.33927691740221566 5.3997311704116475 0 13 41 0.2431706362476958 3 274 4 119 10 276 1 164
7359 0.48919288428833579 0.36266319315464329 5.3906796628211042 29 46 72 0.78817263129904991 3 160 4 261 10 182 1 165 2 291
7361 -1.3221122542803503 0.42448080432884022 6.9713058353249426 104 129 158 3.0481009974367197 29 99 1 167
7363 0.80480276707577014 -0.76985697799387676 5.8552477093069202 47 61 80 0.46730567320816907 3 281 1 169 4 62
7364 0.33440693654183373 -1.3107408844545227 5.8160191728414148 145 159 184 0.23147873530059782 2 233 3 258 4 193 7 262 10 267 1 170
7365 0.23617042346801609 -1.2212001155881373 5.7194917895593749 3 24 47 0.73143368407400233 3 257 4 192 1 171 94 138 100 66
7366 0.16817082647178472 -1.1021278852933021 5.6165903578738456 46 60 86 0.40361585099913838 3 179 10 261 1 173 2 225
7367 -0.16749806930067274 -0.87111311095025168 5.3845776243241197 70 95 125 0.50260534419819747 2 221 3 250 7 253 16 252 1 174 10 252 28 257 29 223 24 212
7371 -0.26538444390509203 -0.62824724532306964 5.5232174017060842 131 155 185 0.72652277138000254 2 124 3 172 4 188 7 132 10 138 16 129 1 179
7372 0.36122913127271211 -0.56387393271403996 5.4941937938257706 24 39 62 0.40261426222405167 3 273 4 130 1 180
7374 0.14983264510654642 1.2745607965150616 4.9200626686585034 77 86 102 1.6546075498511073 3 311 10 337 23 294 1 182 32 330 26 290 27 303
7382 0.6526283060460818 1.0593270736581459 5.0577291288715536 47 70 102 0.30372038439894916 2 146 3 142 10 214 1 192 28 329
7384 -1.3400621611802579 1.0504706763673721 6.568085093354326 116 131 158 0.44775830140085521 2 340 7 355 10 362 16 388 28 245 1 194
7387 -0.064897638595989016 0.95751306757762134 5.272127001741385 115 139 168 0.48880922411310557 2 257 3 198 4 207 7 300 10 309 16 371 24 261 29 179 1 197
7391 0.095184994111532487 1.8233519348054994 5.52295411819681 6 24 49 0.8617887143035351 2 331 3 184 4 197 7 147 10 228 16 238 24 303 28 193 29 316 1 202 24 200
7392 -0.097657433803473082 -0.79122522551025443 5.5364427625309283 97 126 154 1.3335473025408746 3 330 10 253 1 203 2 219 10 200
7393 -0.59073893611600437 0.0024346377159789288 6.1447776666096372 42 46 60 0.80722075969204032 3 217 4 112 1 204
7394 0.47269993336155319 -1.9490874395864006 6.3785833933538552 21 26 38 0.4263496232366441 2 243 7 172 1 205 10 273
7395 0.45154091548218023 0.65148115783010041 7.3467561808192352 116 136 164 3.616099124581011 4 219 91 114 1 206
7396 1.3896151393549006 0.52310936739769054 4.7647803070247647 65 87 119 1.7378357462775398 56 110 60 125 94 324 1 207 65 146
7397 -1.0889038632842614 0.37600697680544859 4.4979658914345038 3 21 51 1.8017310575427066 4 221 16 163
7401 -0.4473718582201156 0.49196595070638877 5.7891550342366509 46 71 103 0.19830467072525648 2 297 10 235 1 213
7403 -1.4546451599838583 0.56351918318619298 6.5800666208555318 88 117 147 0.10951986012054413 4 309 1 215
7405 -1.3582385568422692 0.6378054077718287 6.6094092699528213 126 154 185 0.05761144121744538 3 208 4 216 1 217
7407 -0.90445934762245217 0.7239616496242145 6.1282155150762794 120 145 176 0.30830070451383762 2 211 3 206 4 198 7 183 10 227 16 178 1 219
7408 -1.6401036270371323 0.85329337243805947 7.096003186011127 105 119 140 1.3511887306137043 4 299 7 157 28 181 100 306 1 220 94 315
7410 -0.28401172743216008 -0.62637369381966801 5.6453525367856585 73 98 129 0.29120499536722749 2 255 3 171 4 189 7 219 10 198 16 205 28 170 1 223 24 181
7412 -0.40210796286691425 1.9987162662171913 6.238148877486438 21 25 30 1.98761488826306 2 333 7 339 16 367 23 263 24 258 26 301 29 317 56 261 60 227 64 234 65 267 94 359 100 375 51 238
7416 1.3139858395641748 0.2620774395749973 5.6557439804306329 98 125 157 1.5065823156067872 4 273 65 248 1 233 56 213 64 194
7417 1.1967285539823782 0.25302074660601931 5.3057400590023649 82 106 136 1.9917872435437707 3 358 4 269 100 274 1 234 93 216 98 183
7418 1.5313924168696993 0.29034774016123172 5.0471686159053233 25 29 40 0.93039947817567581 64 195 91 143 100 225 1 235 94 226
7420 -1.136276336308059 0.20399715911706678 6.8352050672057789 70 81 100 1.2663889621193318 2 303 3 235 4 267 7 305 10 338 16 169 51 218 60 209 1 237
7422 1.7152979981264633 0.34633298345898123 5.1827543151508602 53 63 83 1.8370147223767475 3 236 4 264 51 225 60 211 64 276 65 99 94 272 96 141 1 239 92 294 95 361
7423 -0.10975443660181981 0.2272637679580789 5.8666579077346386 103 123 154 1.1834457255947552 3 241 4 270 10 283 16 395 1 240 2 283 16 323 28 218
7424 -1.2450978172120328 0.25025733538823647 7.0254788756345592 66 76 98 2.0047100193274154 7 292 16 330 24 272 28 239 1 241 29 288
7425 0.80146152957638095 0.22406209487425416 5.3322184681855136 45 71 103 0.11836505679533371 3 220 4 277 10 286 1 243
7431 -1.5282023448749427 0.35514584298448992 7.2925285654995315 19 28 39 0.71337031842174192 29 295 1 250
7432 -0.28790612987224434 0.3867413074635675 5.7251023545049797 78 96 126 0.41982977394145021 3 336 4 224 1 251
7438 0.41056094927030601 -1.1281989112076363 5.6370456597677974 49 64 89 2.0064312569657274 3 178 4 250 1 262
7440 -0.136317353773276 -0.77262393149920094 6.5924389258482581 79 93 107 0.87775483122440134 3 279 10 257 16 369 1 265 2 217
7442 -0.20904221510379195 -0.6629121450802653 6.4643892012143498 81 94 116 1.5775530077740767 3 275 7 249 24 205 28 265 1 267 10 249
7444 -0.66741402658197035 0.41339413423619681 5.8125842446013403 75 102 134 0.27936520871038178 4 256 10 372 1 271
7445 -0.25983951719005138 -0.28411051998578768 5.7473518039770326 111 135 163 0.62249023817446503 2 191 3 238 4 237 7 285 10 194 1 272 28 164
7447 -0.1609564517607093 -0.28086944891719329 6.3218936443745521 48 72 100 1.6169841243047236 3 227 10 294 1 274 2 189 4 236 7 211 24 195 28 275 29 256 16 124 28 115
7448 -0.20731234618978089 -0.27550113553654498 6.4360902268196414 72 84 102 1.0292622832751204 2 250 7 256 16 318 28 276 24 177 1 275 3 226 4 235 29 114 24 99
7449 0.51795173825781837 -0.13757544037495881 5.6463849149197252 12 21 39 1.8131688526272711 4 45 10 43 1 277
7451 0.2113699056817098 0.052055450537856499 5.3319797453389688 50 65 93 0.82278690187069137 4 179 1 279 3 218
7452 0.10882032851079278 0.053881656785294087 5.9128329639423445 86 110 143 1.1078954899594591 3 216 4 241 1 280
7453 -0.24149907656650679 0.059726108955673506 5.3048442720756901 33 55 82 0.33994358726988244 3 215 4 177 10 289 1 281 2 244
7454 -1.0290141866231031 0.11355548829449746 6.8225481857859362 21 25 31 0.45711121315535913 4 280 91 390 1 284
7455 0.19066921840499595 1.2879313174395337 5.1868767814051457 86 101 121 0.24667132311346363 3 191 4 199 10 351 1 285 2 185
7457 -1.4489562734144323 0.51048606257800322 6.990688199974417 78 105 136 1.2922959789973536 4 218 10 333 1 287 2 290
7458 -1.2050592442227801 1.0215069130027288 6.4508283725764768 49 75 110 0.42111735979715859 2 176 3 181 4 284 7 197 10 213 24 320 28 185 29 220 1 288
7460 1.1749417382815028 1.1744352531576527 4.9522727684668517 6 23 45 1.1152439285513998 2 284 3 314 4 314 7 301 10 315 16 372 24 259 28 328 29 322 51 134 60 130 65 278 1 290
7461 -1.4574215539684656 1.1266656693516497 7.199871286131609 19 25 38 1.5485253833870845 4 100 10 367 1 291 7 357
7462 -0.49076238756702822 1.0506077376413012 5.773306521371917 21 46 80 1.1768961160442355 2 336 3 284 1 292
7465 -0.38785689760114972 1.3157852177973528 6.6716428877608731 88 106 130 1.4342141790351457 16 392 29 175 65 293
7466 -0.5717135449380889 1.2046695983842461 5.6312314120358176 10 34 61 0.27321124617808629 4 184 1 298 3 295 10 355
7468 0.20806721705745829 1.2859584103360717 5.1025327462322609 92 107 129 0.71081388868239426 4 282 10 246 23 131 1 300 32 87 27 133 26 120
7470 -0.7025494215607001 1.3113395172730451 6.0700998298666713 33 47 58 1.2073664067916758 4 337 7 374 10 346 1 302 24 290
7472 0.0054372259027674757 1.3272442394443908 5.1357807547113179 22 26 35 0.47501423942024484 2 368 4 205 1 304
7473 -0.13978469491477771 1.3219186710372846 5.2523389698405403 111 129 159 0.1922118195423288 3 301 4 312 1 305
7474 0.078272316252671142 1.7308693141134093 5.3429569665082459 47 56 77 1.4440475303176985 4 320 10 110 1 308 2 94
7475 0.09158790603922369 1.8561312779691008 5.5837337743867286 98 120 148 0.3575723325369406 2 312 3 341 4 319 10 342 16 366 28 194 1 309 7 146
7477 -0.26977884140054303 1.9252001214369627 5.8563246871928882 117 141 171 1.3036233860330593 3 343 4 318 94 342 1 311 10 341
7478 0.1868249754048173 2.0152331729654609 5.7501748112468514 76 98 125 2.4247743814270035 2 186 3 344 16 236 24 198 28 168 29 218 64 166 65 179 1 312
7482 -1.6111404899797195 0.60770253792240903 7.4021587851668853 80 96 117 1.5607082655685531 2 304 3 327 4 310 7 317 10 233 16 299 23 142 24 249 28 312 29 275 56 112 60 243 64 271 65 122 92 256 96 186 1 316 27 144
7484 -1.0933487845933723 0.59074207044879989 6.2467976000533012 132 160 189 0.40043919768019176 2 306 3 209 4 305 10 247 1 319
7485 1.0065661451951378 0.65256613802252883 4.7910887915801261 128 153 184 0.13930490476590557 92 345 96 302 97 320 91 323 99 329
7486 1.9460178987077215 0.74274236053615117 4.6764353987922265 62 77 98 1.6420824195460968 56 270 96 91 1 320 97 121
7488 0.23481443241443273 0.7422252816912519 5.2127116255138919 27 49 83 0.26760013291473311 3 324 4 213 1 322
7489 1.4969116772836473 0.98820385668142274 4.5354527113657204 78 92 114 2.5065825237577113 64 226 65 282 1 325 4 211 56 263 56 277
7490 -0.93360513611602503 0.86262066548990068 6.3540612499055937 119 147 178 0.59330061583450455 2 273 3 347 1 326 7 366
7493 -1.3500741934997109 0.94620168051652009 7.1321688787816075 104 130 162 0.44037921644982947 4 296 1 329
7494 1.5087324970989224 1.071575842512059 4.6916203907116509 91 108 131 0.47029232429790874 4 339 51 237 97 360 1 330
7495 -0.94337174238335109 0.90947467602010357 6.1789095868457471 97 125 156 0.33409021339550926 2 147 10 217 1 331
7497 -0.47100463472849879 0.85989749487321354 5.4455407409984593 35 62 94 1.5628752877889016 2 281 3 232 4 295 10 322 1 333
7499 -1.5082906462178309 0.98470166964078132 7.3304398412624678 17 29 45 2.4909753674052184 2 278 3 356 4 290 10 311 16 397 1 336 3 94
7500 0.72183864896699279 1.2427584542089747 5.206428822206786 15 28 42 0.35727592532975094 56 120 64 247 65 257 51 188 60 236
7506 -0.67682891575834203 0.77526634717050058 5.9461326060196296 97 124 158 0.82779635027914877 7 289 10 370 1 346 16 312
7510 -0.14894934871897234 -0.87253669071481588 5.6519361091453462 109 135 163 0.83450093063688335 27 0 32 0 23 0 26 0
7512 -1.7136895170214841 -0.03287573165672128 6.1299567137172906 26 26 26 0.71272873881036158 27 6 32 4 23 6 26 6 65 6 56 8 64 6 60 5
7514 0.014372953703948147 1.8850253805501873 5.9890138723884281 98 123 154 1.4441273585440744 10 7 26 5 27 8 32 3
7515 -0.18413560673361454 0.047631328475928901 5.625021843130428 110 133 164 1.6924490140003747 28 6 29 7 16 5 24 4
7516 1.4484390976761992 0.19934113754350621 5.1427418059891954 26 26 25 0.8025935641644677 16 15 29 39 7 22 24 22
7517 -0.5267973171307242 -0.038830133693548895 6.5471115911462832 26 26 27 1.2976781038353584 10 14 29 17 2 13
7519 -0.068988654001868058 0.53070418303521294 5.4008471456518778 54 77 106 0.93453222802798297 7 19 16 16 28 18 2 15
7520 -0.6920588546846419 0.5545159620025083 6.3174423386754279 91 114 145 2.0695109826991045 16 17 28 19 51 17 60 11 29 20
7521 1.9625248946558922 0.96546894199302347 4.962028707353479 53 76 104 1.5442361863147294 3 14 7 14 10 19 16 22 28 24 29 24 2 17 24 153
7523 -0.46588056363122066 1.1882186741821426 6.0389543566623622 121 146 176 1.7592695812496038 7 17 24 11 92 51 94 57 16 11 28 12 29 12 100 54
7524 0.48774752807703065 1.7086921308057212 5.6249108225477125 26 25 28 1.0280849705589084 23 47 24 14 27 27 28 15 29 14
7526 -0.20580189034570368 1.5884424449648757 6.3318533592314941 27 26 27 1.487364718944733 4 13 7 34 10 17 16 36 24 19 28 32 29 22 2 22 3 21 65 29
7527 -0.63321126161891939 0.77187555398094909 5.5272771602615913 101 128 157 0.13437935411088869 24 15 29 15
7528 -0.06267728387592246 0.18107566662798105 5.3226099971536032 7 19 36 0.46438105905090921 3 17 7 21 10 21 2 25
7530 -0.14755417307628743 0.060041687014610226 5.4789684337116196 107 130 161 2.1427465025125447 3 214 7 26 10 288 16 25 24 31 29 28 2 28
7531 -0.29726299133961781 0.266846187306361 6.4663479999837721 4 14 32 2.0726831043597174 16 31 28 39 56 20 64 41 65 21 24 58
7532 -0.16817448712457025 0.99449648751882658 5.2986575254407793 48 71 104 0.85765532520777776 3 43 7 39 10 39 16 51 28 51 2 31 4 43
7533 0.40595824114133644 1.3692354685177246 6.2552542850236357 94 120 150 2.064612157321001 7 42 26 37 27 28
7534 -0.75310004281515308 0.55757615560712182 5.9979788784587393 0 11 30 0.63363066261496215 7 35 16 32 28 37 29 43 24 27
7537 -1.0617541501607266 0.30094867285546345 6.3531698693480534 65 88 122 0.69731296113787811 16 42 28 64 2 38 7 51 4 53
7539 1.3757118064920808 0.34091037878534258 5.028675974714603 54 72 99 1.5026328026019389 3 72 4 68 51 69 65 36 2 40 10 90 60 66 7 63
7540 0.69468160352515818 0.31343976142669067 5.4696193188545186 8 19 41 1.1114835936852689 3 73 7 62 2 41 4 67
7544 -0.20487547448592483 -0.92292542215152895 6.0546034657499117 94 118 149 0.45618197797695892 7 29 16 28 29 29 24 20 28 31
7547 -2.211661814338417 0.70446040995499104 6.5330636923239345 95 112 140 0.77838468607386258 27 46 32 38 26 44 51 44
7548 -1.7534131611625101 0.80530643841078564 6.9258849870052686 108 124 149 1.8333599440026669 16 38 56 81 60 40 3 91 4 105 2 50
7549 -1.316499289599159 0.784080118388644 6.4616002280562244 123 151 181 0.63317882558673988 3 47 10 45 16 50 28 50 4 71
7550 -1.2979365077680269 1.0981041048910183 7.6632513483777789 24 26 31 1.5032585576391806 7 40 10 78 16 21 28 23 29 30 2 52 51 16
7554 -0.43474241339475089 0.37678495991339078 5.7500363912748096 81 101 129 0.40076283917935424 7 59 10 82 2 58
7556 -0.53565239377714458 0.58521084287038894 5.71236974670515 126 149 178 0.23948461684952976 3 70 7 114 10 71 16 108 24 145 28 105 29 156 2 63
7557 0.22945614852458904 1.0286560567231791 5.1615626313285414 101 121 150 0.73590370361105706 3 60 7 77 10 65 16 69 24 136 28 99 29 148 2 65
7560 -0.25911420206611607 -0.15252430380942308 5.2685183047950366 25 34 52 1.4048778320084516 7 65 16 61 2 71 29 32 24 21 28 22
7561 0.63266563614241311 -0.37274680211210559 5.7041322358434554 23 28 39 1.6685823889912057 7 67 16 88 92 32 96 35 2 72 94 31 100 28
7566 -0.78616970370523831 0.39612362176270427 6.0799938640148401 79 99 126 0.32975266894006988 7 103 16 165 28 144 2 78 29 118
7573 0.72735438710213096 -2.085482688973304 6.6417213056140687 78 92 114 1.2941545827498415 16 95 24 71 28 55 29 82 92 79 96 70 97 81 100 126 94 143 92 288
7575 0.36896558734082757 2.0250004995121871 6.6821243572720697 80 103 136 2.1261818005332493 27 89 65 266
7577 0.5284869078809703 1.8979147868659887 5.6681951584820442 39 48 63 2.3415738021776171 23 197 26 159 32 308 3 101 27 204 28 130
7580 -1.3792208080937196 1.1457257832677037 7.1520145186028934 93 111 137 1.2708300109926463 3 138 4 151 7 109 10 113 16 102 29 75 56 39 2 98
7582 -0.38381405998536261 1.0651349618179264 5.9905599682617376 131 151 184 2.3707820282533976 7 117 16 149 28 52 100 162
7585 -1.363257015133895 1.0519098962338906 6.4929503225684471 114 126 146 3.8197940036864253 56 50 94 165
7586 1.9463547211975551 0.42591397622925048 5.0079423629317725 20 25 36 1.5792774622859278 10 179 51 205 92 254 94 345 100 217 2 106 97 343
7589 0.10023038660709405 0.18998619527038446 5.2701594191982943 61 75 101 2.2921302559602719 10 133 2 113 7 204 16 226
7591 -0.249358108586724 0.18306328370699235 5.9243711910401649 18 40 69 0.51595319450606703 7 127 16 225 2 115 28 221 24 202
7592 1.9304946868188191 0.41200051875584326 5.1519937179177866 57 67 89 1.9891232452632326 10 99 29 339 64 102 65 101 2 118 60 111 56 217
7597 -0.10335557503914847 -0.66807586951490483 5.623801234774028 132 156 187 0.77649411988821015 24 74 28 118 29 79 96 147 92 136
7598 -0.31883230512387595 -0.70627003238193475 6.0704604346597462 95 122 150 0.93005601750287836 3 173 7 133 10 139 16 130 24 207 28 119 2 125
7600 -0.080071627603776424 -1.1492059645201425 5.5710689745320261 77 97 122 0.52789837299449627 3 247 7 224 10 265 28 176 2 127 16 216
7604 0.58987894106550798 -1.7675799527791349 6.1632426487235161 17 24 36 1.0541310993841195 24 121 28 178 29 131 2 131
7606 -0.06490854257194846 1.4810592964621785 7.1483174911394629 12 24 38 2.2546457830184274 7 141 16 194 64 88 65 177
7609 -0.36398242436239653 1.5521315593935223 5.7089332540468609 64 88 118 1.7352046537738577 7 94 16 87 28 125 10 58
7611 -0.5827935542991094 1.3513912243279382 6.0497419076271752 94 107 126 1.5165194866530027 7 151 10 209 16 144 28 133 2 140 24 98 29 139 3 352 4 141 1 133 2 209
7612 -0.03448957383360203 1.3480698533305404 5.3068888518734285 91 107 127 0.18322852221241759 24 126 28 135 29 142 2 141 7 152 16 145
7613 -1.2959396950848137 0.9608746595190929 6.5986866716331916 130 153 184 0.74351552022912082 7 154 10 368 2 143 16 150
7615 0.73711576706799198 0.95053269380171024 5.4603652289862721 37 58 87 1.1138256868066205 3 360 10 168 2 149
7617 -1.0981252058397337 0.68757183966911628 6.2608643220895859 117 145 175 1.0207119849894004 4 164 7 164 10 172 2 152 16 157
7618 -0.31306809720555295 0.72471486918366956 5.4289580124084509 112 137 167 1.0296403273455734 3 104 4 108 7 165 10 171 16 176 28 206 29 169 2 153 24 252 100 112
7620 -1.6008717589267547 0.57275827824594161 7.1120132813342574 71 92 122 0.42665328632002142 3 166 10 175 2 155 7 113
7629 -0.60921329421445947 0.83839517585574674 5.6993405781357938 91 111 138 0.13949423127674487 7 191 10 224 2 165 3 203
7630 -0.67460255022274473 0.85506522527928364 5.9232227948228644 112 136 170 0.070792695729385444 7 193 10 313 2 166
7632 -0.31082442360392215 0.88470486248042512 5.4311551783896084 106 132 162 0.59696150206804277 3 304 7 295 10 306 16 286 24 163 28 199 29 177 2 169
7637 -1.3644079348298792 0.81849269903805966 7.6302665348234937 71 98 130 1.9148873383302436 16 311 26 169 56 129 2 174 65 181
7641 1.0527382582835958 1.2573903512839855 4.8996303732947544 22 28 38 1.0871107599041847 16 382 29 326 56 251 64 248 65 258 2 179 100 343 92 355 96 154 95 198 94 330
7642 -1.1880015754580582 1.0471278381207636 6.409195733415503 132 157 188 0.10012265181969615 3 293 10 349 2 180
7644 -0.20851861523654372 1.2172504887608555 5.3774689820936281 50 74 108 0.57535237044243159 7 328 10 206 16 237 2 184 3 134 24 317
7645 -0.28600925034450481 1.8128735479852058 5.3245032720707171 48 72 102 2.5117884827356241 10 243 23 122 27 126 32 116 26 118
7646 -0.38247858490914821 0.2907968263867684 5.3498883428818447 87 112 144 1.9413751424405872 3 182 7 185 2 187 10 373
7647 -0.24622495391396249 -0.19046155208799001 5.5049531027446061 70 97 129 0.43013218414237647 3 225 4 234 7 143 10 293 16 123 28 150 2 188 29 115
7649 -0.22357447130029651 -0.25236272652949221 5.6371970473762127 96 120 150 0.16556266975249773 7 213 2 190
7651 -0.25104365403172568 -0.86586777648601532 6.1711317075081835 91 111 137 0.58102184485024311 3 175 7 135 10 201 16 131 28 120 29 126 2 193 24 115
7654 -0.087597044210358452 2.0233844807290158 6.1200196038456331 122 146 175 1.1200758866897806 16 221 28 288 94 343 2 196 7 175 91 369
7657 -0.61990188718384931 1.2832002402784022 5.4944618884827259 62 86 117 1.0278120108326616 3 321 7 237 2 200 16 195
7661 -1.1767123126618639 0.54061693264382249 6.3685960750047004 86 115 145 0.72722693925896487 3 328 7 307 2 206
7666 1.9139570645885042 0.66721580878856834 4.8222730980910669 23 35 54 1.1353670300899068 3 333 7 312 10 236 51 214 2 213 64 263
7667 -0.16723049205207879 -1.0829377719965179 5.9420743758628323 1 13 42 1.124454186024922 7 137 16 132 28 85 29 92 2 214 24 89
7669 0.016097144111267902 0.79136732842621949 5.2760920470342016 46 71 103 0.30439761900285389 24 244 28 320 29 278 2 216
7670 -0.17060031716632218 -0.77529166247925529 6.6112596723718422 23 27 33 0.95243901542541809 3 280 10 376 16 206 2 218
7671 0.27129143954922375 -1.1710420188789747 6.8631451003478574 88 108 129 1.7939976055090012 24 184 29 231 16 254 28 216 28 174 65 182
7673 0.21361327856890097 -0.96979931174398193 5.5098178202306496 4 14 41 1.8413219873056754 7 221 10 202 16 240 2 222 28 255
7674 -0.1609609094440326 -0.99260030973787416 5.9063609238078589 80 100 126 0.27331724133468999 10 250 2 223
7675 0.11061152720107462 -1.0383367036632649 5.4178377066782275 81 93 115 0.86838549444890878 7 254 2 224
7676 -0.046789044547331501 -1.1371981938821603 5.975065708019085 14 26 47 1.186896770617534 3 252 7 341 10 262 16 215 2 226 4 248
7677 0.29065784595744315 -1.1482529132271737 5.6041846227336061 101 115 137 0.18479683541930186 7 245 2 227
7678 2.0330909981901533 -1.7553461438206654 8.0160582936176272 15 33 58 0.34449343263716548 7 225 60 62
7679 0.14697331333288532 -1.1768907978700629 5.5968742355380829 9 33 55 0.34356564088527741 10 264 2 230
7680 -0.12048916624661322 -1.2628231353061212 5.9886788435140854 76 94 118 1.0200889611745885 7 261 16 259 2 231 28 251
7681 0.35571503994642084 -1.2730068923529545 5.7692798412779176 145 164 189 0.24391066014966956 7 260 10 266 2 232
7683 1.6040129687662401 -1.8924015490046426 7.2224484650773109 15 32 54 2.0796527747421205 16 261 60 45
7685 0.40115676486123669 -1.9258440844737985 6.516471429400533 18 25 43 0.91138280615391298 92 211 100 261 2 239 3 263 99 291 96 268
7686 -0.20793403776677205 -0.32433001978630488 5.3330914226271391 38 58 89 1.741639965832821 7 287 10 297 16 295 24 239 28 272 2 241 7 276 16 281
7688 -0.3099867877617144 0.018509143012327839 5.2599886226372323 27 48 73 2.274857264361521 7 271 16 278
7690 -0.16453379211434879 -0.10036846382949731 5.4421109935524452 100 123 150 0.9639513749278712 3 223 10 291 16 284 2 247
7691 -0.23142992169772281 -0.10220462285227226 5.5473224100101923 83 108 138 0.83917959497062711 7 280 10 89 16 287 2 248
7692 -0.13840742011639995 -0.19415342105396846 6.3348069022953331 60 82 114 0.33557754967446546 7 283 10 292 2 249 16 198
7693 -0.2870280746005649 -0.27815307968483305 5.7790053244174526 15 42 74 0.36931160133459723 28 336 29 242 2 252
7694 -0.11383845752406771 -0.35896755013526754 6.3068190035951455 115 134 165 1.3649030101771429 10 339 24 238 2 253
7695 -0.16462322657248424 -0.36874895347173176 6.3179611566359819 22 30 42 0.2466976029526817 10 296 2 254
7696 -0.26638883139381131 -0.37112686861115735 5.9196388950249483 98 118 143 0.158813506567548 10 298 2 258
7697 -0.21676488006401834 -0.34506414146295289 5.4617205126064166 126 149 182 0.24756560122841501 3 266 7 199 16 200 24 178 28 165 29 186 2 259
7699 0.25664980060274845 -0.44318963904030717 5.4256581858852497 20 34 54 2.2267867869274323 3 269 7 243 10 301 16 245 28 271 2 262 24 240 29 261
7702 -0.23857150077611172 -0.59730317964708379 5.7218158195957525 111 134 165 0.088346009399043385 16 242 2 266
7704 -0.5188972154174305 0.85627602589402774 5.730820200279795 74 98 129 0.76497196873493511 3 348 4 292 7 293 10 324 2 272
7705 -0.41596225796263958 0.86591836144906031 5.6267169951872624 88 112 142 1.3904154515844733 3 285 7 294 10 323 16 317 29 282 2 274 24 138 28 100
7706 0.2239901129040868 0.9334351272857131 5.2089709624541358 29 53 80 1.3195056644736758 3 305 4 110 7 296 10 221 2 276
7707 -0.40349581355340708 0.87232386947828433 5.4264921935214767 54 76 109 1.141725879606833 16 181 24 271 2 277
7710 -0.90696886731056625 0.89441480993842126 6.1289286487429289 112 140 170 0.39757369030534251 7 299 2 280
7711 0.21383345389955871 0.098756757739056789 5.7963822859263727 133 153 183 0.3471380724818014 27 196 26 268 23 149 32 196
7713 -0.8059602709098217 0.90286159455370874 5.4092371594248299 67 90 120 1.8154533883577202 3 312 10 312 2 285 7 303 16 375
7714 -2.0938210568937494 0.89867315957702787 5.9998847139423681 90 106 132 1.092234164090812 23 61 51 75 60 75 26 323 32 40
7716 -1.1990037120111492 1.0036795979292266 6.5137202130335128 114 135 168 1.0301558353901001 7 239 10 321 16 385 24 302 28 284 29 327 2 288 7 372
7717 -1.0566696675142109 0.26193200268767058 6.4310334051671267 50 73 109 0.26655577644786826 4 342 7 297 2 292
7718 1.8416873906011655 0.47294696989390023 4.9263961645016954 43 54 70 1.4673796392821623 16 171 56 108 2 294
7719 -1.2573135060130496 0.17172202871302297 6.944499275536006 21 25 37 2.4121537171698781 7 349 23 249 28 217 51 219 2 295 32 113 94 283
7721 -0.1593054277681536 0.53987692503647378 5.4909754664183543 104 128 158 0.17181877175096089 16 342 28 280 29 266 2 298
7724 -1.3937144580909953 0.99809861781607201 6.7360441093937817 121 144 174 0.0066635195648063802 7 350 2 301
7725 -1.4247067090890584 0.58827124497689354 7.3778677146571408 70 93 123 0.27273059653078047 24 154 29 168 28 209
7726 2.0654251692379821 0.89146713254806031 4.7798906979401039 63 75 95 0.86303168224388893 4 303 2 305
7727 -1.298132437594574 0.58049588867846647 6.2580839075027752 98 127 158 1.2068131483408808 7 318 10 332 16 303 28 314 29 276 2 307 3 326
7729 -0.60648693524708697 0.68653773520128003 6.0706871555989528 78 95 121 2.1765897278252186 3 207 4 214 10 229 2 309 7 324 16 234
7732 0.5013151163145001 1.3793158388865969 5.1901428735369981 19 27 37 0.61824155727910701 7 170 16 191 28 219 2 315 10 348 1 301
7733 -0.75154477275726372 1.2629390720471776 5.7970387561092043 129 150 179 0.21492045752804495 16 356 28 191 2 319 24 291
7736 -1.0562089999200963 1.2034879025940182 6.3460594132012691 128 142 159 0.027346975966873306 28 301 2 322
7737 -0.28975440632454247 1.4877854205380721 6.0944497623408402 18 23 35 0.91806782476910287 10 364 2 324 3 113
7738 -0.1441400012892334 1.5099473611132646 5.7160509110979234 62 88 119 1.5875912529425773 7 235 10 345 16 362 23 307 2 326 3 340 28 132 29 107
7739 -0.12516245787085284 1.6131121497389573 6.2387862182707998 29 35 56 0.72162993886343563 7 266 10 369 16 364 2 327 28 296
7741 0.091508581352127721 1.7793297475646048 5.5773101304946069 82 101 125 0.085413236625664704 16 270 28 291 2 329
7743 -1.207426106333841 1.1829205770317557 7.1995070698167281 65 77 96 1.1630595205216485 4 325 16 379 2 332 10 195
7744 -0.21161888630913234 2.1177876441772558 6.4263288926801785 22 26 30 2.164839504651594 10 340 27 314 32 311 3 345 1 228 4 317
7746 -0.64571596821689003 0.16814139641840914 6.1620520790672177 14 29 45 0.15742808447836742 7 371 16 368 2 338
7748 -0.15380163278160319 1.1098719732756988 5.2543007340583534 96 120 155 0.70855133028665218 3 289 10 358 16 386 2 341 28 184
7749 1.0644997984102764 1.3115128328613348 5.0748943422851012 16 24 38 1.5204099724653584 16 387 28 283 2 343 97 367
7750 -1.2214075450692152 1.1315084884601603 6.5022249584377851 132 147 166 0.98613843519060018 3 290 7 230 10 354 16 190 28 187 94 337 96 382 100 360 2 345
7751 1.4693400433903807 0.20857478292560669 5.6703533493607354 66 92 123 1.0263024671546759 7 268 51 232 2 346
7752 -1.119083556808256 1.1830046626713138 6.4864338120259895 133 152 175 0.33153175428761661 3 292 4 333 2 347
7753 -0.26079102722478054 1.3792032403213084 6.6980114646515618 15 28 40 2.0944303864998322 28 303 29 215 60 232 64 148
7754 0.35125404627580648 1.2892007951279933 5.0675970245542592 63 74 91 0.17428898202436052 3 296 7 241 10 359 16 347 28 305 2 349
7755 -1.1292416599927197 1.2172044200635521 6.5934236142435756 13 26 39 1.3374115292153106 3 283 7 329 10 352 16 272 24 285 28 302 29 308 2 350 90 73
7756 0.35094732157801367 -1.7353281674044634 6.2463311304292546 22 29 43 0.10990030383886965 28 249 2 351
7757 -0.60307091377610456 0.079633047004884647 6.4135435757380845 23 31 46 0.068092330473691023 7 270 2 352
7762 -0.52377565688963645 0.98749038453091131 5.5182789505392282 51 75 107 0.20704192039868746 3 315 24 324 29 328 2 363
7763 -1.0729947419193768 1.2215671344412145 6.4867368980873916 14 23 39 1.7282342350903603 16 271 92 261 96 336 2 366 39 211 40 233
7765 0.34931958023662307 1.3285096576627939 5.6903500875849602 105 131 164 2.2754947957021092 92 28 94 27 96 21 3 20 90 39 98 34
7767 -0.77156508163145276 0.11217659856470791 6.6433109166666462 112 133 163 2.8975173780404084 27 23 94 33
7771 1.1913535485083053 0.067347828813840091 5.8526469145900508 26 25 31 2.8731059830118379 4 34 10 56 56 13 3 33 7 48
7774 -1.7552240372176524 0.55389342825111176 7.3196044013770774 26 26 30 1.8130193273569486 10 67 16 33 23 21 26 26 27 30 28 36 29 36 32 17 51 18 56 16 60 16 64 21 65 18 3 57 4 307
7782 0.2018340099772723 -0.060447660505849973 5.5047453669093693 11 25 43 1.991527942267501 4 52 7 281 10 192 3 118
7786 -0.92193488478286933 1.0962187825930685 5.5427452335223144 59 76 98 1.828887433882523 27 336 65 131 23 295 32 331 56 169 64 243 60 189
7787 -0.72885566602804508 0.64825017507718885 5.8043316381941317 81 104 133 0.29441413225939572 7 321 10 173 3 147 16 305
7788 -1.2797724467624847 0.47131845892979279 7.001527815790535 110 135 164 0.57355809753398179 24 97 56 86 65 89
7789 2.253686826097629 0.62996197331519854 5.0538673342343268 55 69 91 3.3892822492282799 28 242 29 123
7790 -0.68020582799463336 0.46731436809997984 7.1313842047312157 91 119 150 0.49757232101708587 10 238 3 163 23 91
7791 0.32653119983365653 -0.30853490098873743 5.6087702885585671 12 28 55 1.5405822753295033 4 316 7 286 10 196 3 169
7792 -0.31521376586397859 -1.132552935368808 6.1682562370892722 116 138 167 1.8528329835969075 26 96 27 188 23 171 23 210 32 182
7797 -0.48774483511916189 0.81322765950939102 5.4524262573490052 29 54 87 1.0402309037454864 16 179 28 341 29 176
7800 0.86091981483607394 0.22735999761251391 5.3144827172211517 117 141 170 0.85360004440778192 7 267 10 285 28 224 64 192 3 243
7804 0.14769889474112041 -1.358750300115765 6.1488022048611413 84 105 131 0.20155177369015384 10 268 3 259 7 226
7806 0.6516917410998605 -1.5749392691897326 6.2112883708783384 83 97 119 1.0289335195452094 4 196 16 135 28 124 3 261
7808 -0.32325953692984233 -0.42170854359957943 5.6028339000334011 59 84 114 0.23333256796031049 28 335 3 267
7813 -0.84218984146590092 1.0298283936638031 6.072247071436891 94 114 144 0.19036128633831034 7 373 3 317 28 285 29 333
7814 -0.75427035061260439 0.49278598966878795 6.0986015666700437 112 130 156 1.9231059637743373 10 334 3 320 29 298
7815 0.20476823659811544 0.81576345105046977 5.1899027240275375 31 53 84 3.7339257792522806 10 212 100 376
7816 3.1744127826447825 1.197626157665741 11.115648083118581 122 150 179 0.22693276793786274 16 298 92 347
7817 -2.4280818949442624 0.36596724656895824 4.5998935138922201 62 91 124 2.0897890590496933 23 280 64 268 32 264
7819 -0.45479074374367401 0.58526663854678218 4.8538297629895659 82 103 132 0.24591655758678185 26 246 27 261 32 256 23 265
7821 1.3558628762202034 0.99601254125310035 4.9615679745950914 50 68 101 0.10178532604162073 10 371 3 350
7823 -0.041678427153792386 0.054610446377629594 6.0168595343190754 133 157 186 0.7810321248204215 28 226 29 246 3 361 24 171
7826 0.051907646923315925 -0.79211133651824239 6.3206951617394349 76 103 135 1.3864831273649447 95 1 97 3 93 1 94 3 100 5
7828 2.1914522603018853 0.47315207159619094 4.8449320985905091 26 26 26 2.6432061720172015 91 4 92 7
7829 -0.26527077104684382 1.5155863112331711 6.4566037451982652 27 26 26 2.03499095932498 24 10 56 10 26 11 51 11 60 10 64 9 65 8 23 10 27 11 32 10
7831 0.2189245904156055 1.2724295511488628 5.4359329822836573 109 133 165 1.4828764695692001 29 19 91 29 97 20 99 19
7832 0.98543701586913335 0.2476596306870063 5.3795597374607302 94 118 147 0.83696255945343978 24 32 99 24 95 26
7835 1.4009401591858179 1.6257207076361604 7.2478142266316565 21 27 36 0.28983148348849097 94 37 95 78
7836 0.82084814898880532 0.011223290874869779 5.2588790890261912 25 26 27 1.4739333624595805 51 20 60 18 64 16 65 17 94 16 100 18 92 19
7837 -0.84020002194331067 1.2672098635768996 6.8558085729028839 16 28 45 2.4849442236061852 24 129 92 98 96 121 39 78
7838 0.81292749231525774 -0.085847834756204042 6.0356169892881208 68 90 122 0.42539451014113266 94 17 100 17
7845 1.6436225156881106 0.37553217410398537 5.0200040479243819 60 70 100 1.4673598109766495 51 72 65 62 4 84
7847 -0.17486941482096541 -1.4355444506584771 4.8019200453690614 13 24 41 0.34316658253933918 56 42 65 51 60 46 64 54
7851 -1.0529490598284572 1.0032694317432351 8.8967736723401618 77 90 112 2.1838567495883492 65 174 60 241 64 155
7854 2.0583025680924441 0.47941348777914966 5.4131100030800896 63 76 101 2.5109924379536199 56 106 97 63
7856 0.35861481815763752 -1.9022959412980147 6.0781821199915758 91 97 110 1.9555439686167824 7 173 10 150 100 190 3 130 28 179
7857 0.33694282917770835 1.4851279524598358 5.5570120013208992 39 53 74 0.92453488662788885 24 125 29 77 94 148 92 151
7858 -0.56833554197662761 1.3693416579058053 5.5676057803187433 21 28 39 0.42704363574230325 95 159 91 162 94 332 99 168
7870 1.2884769668091975 1.3512696869335548 6.2188980597035783 103 126 155 0.10991506700832655 99 216 4 204
7872 1.6380149471468752 1.0537544022247634 4.6876784697698008 17 27 44 2.3052751171109169 7 298 100 163 56 245
7874 0.80930949317546008 -0.31072448857800433 5.8701539036663961 24 26 37 2.6006957931462327 94 366 90 224 99 404 93 263
7879 -1.366768412586634 0.23507540449000558 7.0666891580420419 21 26 39 0.79059083891079984 7 361 28 238 91 335 92 117 40 202 16 328
7883 1.8249072817346663 0.91378765963233499 4.6943754039673555 97 114 139 1.755678697858476 60 104 65 233 95 111 98 83 56 275
7884 4.1866581666752607 1.1247219163235753 6.8822554358825636 48 71 100 1.601957036425159 10 330 4 304
7888 -0.45601380879832498 1.2542989550203263 5.4113477736691271 91 113 142 0.385001467450304 28 299 4 326 16 353
7889 -0.42621475186722224 1.0941078173717209 5.3364248691490994 87 108 139 2.9241694805489997 7 326 4 330
7890 1.573153714078128 0.21568934276408852 6.8398210409126925 26 26 26 1.8797421178638203 5 0 6 0 8 0
7891 -0.17990617790187688 -0.70697525293774566 6.4407091581614253 74 100 131 1.3621769009901334 8 1 11 1 12 1 13 1 15 1 18 1 20 1 25 1 5 1 6 1
7892 0.022697052878993384 -1.7115853994137271 6.2180690164611914 26 26 25 0.77729178729020387 8 2 13 3 15 3 18 3 5 2 20 3 25 3
7895 1.1682143475761884 0.96169073741539957 5.0832178074764691 28 37 54 2.4324510789719165 8 8 11 10 15 5 18 6 5 6
7897 0.40561442968316719 0.78179544146332647 5.6409554304164589 57 81 111 2.3782496002900388 12 10 71 10 68 9
7898 -0.32737130747679605 -0.98541310516891523 5.654513894973217 114 140 172 1.4499551687184029 6 4 8 6 11 7 12 6 13 7 14 5 15 8 18 11 20 7 25 7 5 9 33 5
7900 0.4275114459173151 0.082300169587251462 6.5064532674959512 27 34 45 1.7974417104140961 6 20 8 13 11 17 12 14 13 14 15 14 18 13 20 29 25 10 5 11 68 22
7901 -0.48974896113791982 -0.59776945088234401 5.866819460908677 25 25 26 1.1440301165454114 6 14 8 14 11 14 12 13 13 11 14 16 15 10 18 15 20 10 25 11 33 16 5 12 34 19
7902 0.4809290186317885 1.4006504182494988 7.6105622497066836 28 29 32 1.8268718067360574 18 28 5 13 8 7
7903 -0.75527000979132175 0.034183623320880839 5.9356027278951835 28 25 28 1.50849924119306 8 17 12 9 13 18 14 17 18 21 5 14 6 12 11 8 33 17
7905 -0.07421932413948952 -1.2585372765468128 5.6291971221283843 23 33 50 0.76871540036089636 6 25 8 15 11 18 12 23 13 15 18 19 20 11 25 12 5 16
7907 0.56255031945949907 1.6440369710954572 6.1607678834598296 113 138 170 0.67713903600085878 8 26 11 50 13 21 15 23 18 25 20 21 25 15 5 18
7909 1.2203407099827264 1.0935194362754312 5.5856985222308646 94 112 140 2.4034819343182012 13 13 15 61 18 58 5 20 8 12 25 8
7910 0.093837757220954776 0.26205016660286728 5.2227698094927755 85 104 132 0.7280375534430702 8 53 18 22 5 21
7911 0.73507124896058096 0.088337306360641937 6.5749095982814039 83 104 133 0.2670039081599993 6 22 8 27 11 22 12 20 13 28 14 25 15 26 18 27 20 31 25 20 5 22
7912 0.58231892801252694 -0.75462469826562117 6.7144916368661871 25 27 28 0.31636055833633503 8 19 20 18 5 23
7913 0.25620660679368074 -1.2953011698198735 6.2422824857544352 85 104 135 0.69673621992999968 6 47 8 22 11 29 12 26 13 17 14 54 15 24 18 29 5 24
7914 0.054308405569283409 -1.2809532535782944 5.8151239636896301 87 112 146 1.134655004216103 11 21 12 22 13 24 15 18 18 18 20 23 25 26 5 25 6 24
7916 0.3012110805687454 -0.037043293253234848 5.6474094819879603 40 59 91 1.4436184627220729 8 28 13 27 15 45 18 33 25 21 5 28 11 42 11 32
7920 0.63519202848093048 -0.33138405441582031 6.6173938926350555 16 27 41 0.76767226909270481 8 34 11 40 12 62 13 35 14 69 15 48 18 34 20 25 25 23 5 32 6 55
7922 -0.54364605918229958 0.19522641688241033 5.8587633325917849 72 83 104 1.5077075187442253 13 41 18 55 5 34 15 93
7923 -0.024764519427614436 1.7904416549720419 5.7411795003758792 42 50 68 0.77212588383342462 8 25 18 43 5 35
7924 1.2337995176147709 0.77863860268874407 3.7032591606623724 84 108 140 0.62304986583289856 71 50 5 37 8 48 68 44
7929 -0.62567318536395455 -0.22923317657110157 5.7863105776703838 63 73 86 3.0011809975000969 13 131 20 85 25 160 5 44 20 114 20 116
7932 0.50245240386924128 -1.0547590794030635 6.0511302566488769 61 85 117 1.1404892399407105 6 50 8 32 11 45 12 54 13 33 15 51 18 47 20 63 25 32 5 47 25 64
7934 0.50097847794578299 -0.87522083779277082 5.7440121293073654 68 92 123 1.0169043702193665 8 41 11 31 12 38 13 54 15 50 20 45 25 44 5 49
7936 1.0191105067955351 1.0970238821539247 4.2048735679782387 62 88 122 0.55553979935344888 13 72 25 74 71 51 5 51 8 51 20 73 18 79 70 64
7945 1.2113326782032219 0.87092753889442909 5.3414035297556506 12 27 47 1.5362845109240357 8 80 13 36 25 38 5 62 18 56
7954 0.98566792306347795 0.3279164905113936 5.5881796823750722 104 117 137 1.3165948731506374 15 104 5 72 8 69 25 69
7957 0.90841939389100634 0.13598621776090528 5.2722257206940286 107 121 144 1.6279897109286172 8 98 13 79 15 200 18 119 5 75 11 183 25 85
7962 0.64873403472377766 -0.6988054366597688 6.5168552574608318 15 24 40 0.93989210058415962 8 85 12 57 13 85 14 65 18 67 25 66 5 81 20 241 34 20
7963 0.56588432785298071 -0.86327789351058681 6.2354206643027776 105 129 161 0.46201879665597928 20 160 25 183 5 82
7965 0.26810784888800543 -1.2570020851203623 6.1922905371662162 101 123 154 0.19437607345941291 8 89 13 91 15 75 18 86 20 128 25 127 5 84
7966 0.228790958345436 -1.2085078607189434 5.7916604142148786 79 102 129 0.3445480395320637 8 90 11 75 15 76 5 85
7967 0.34793067306496739 -1.1066810759322154 6.0173484188059527 46 70 103 1.0730893090044478 8 133 11 121 12 118 13 173 15 118 18 138 5 86 20 125
7968 0.53609287767371927 1.5775624295073738 6.6693084830862537 59 70 86 2.4601285429327229 18 167 5 87 11 129 15 188
7970 0.58653498609170918 1.8634783413951108 6.5429086880018472 42 48 65 1.4572688782351679 8 109 11 120 12 127 13 107 15 97 18 102 20 94 25 96 5 89
7972 -0.24836352284652233 2.0906858658784375 7.0386321273359469 69 97 129 1.9611286240441383 13 49 5 91 68 54
7975 0.49850230650957256 1.4736272113247837 6.1471614883711014 56 74 102 1.9737488124512423 8 225 18 100 5 94 11 84 13 224 15 90 25 55
7977 0.74086361037113047 0.69514641315109083 6.4146008812296254 19 28 53 0.9436794030758141 8 78 18 203 5 96
7978 0.76910463872124391 0.79733396549143165 3.9799746517641581 13 20 32 1.8710157576602782 25 241 5 97 8 241
7979 1.0590857899023742 0.77464263396244404 4.805416084981176 32 52 79 1.4758288853673802 12 90 15 81 5 98 6 95
7980 0.94313927636084516 0.68136090828763973 4.2779413777082249 51 75 108 1.4018665361537082 8 106 13 98 25 113 71 97 5 99 15 179 20 103
7981 0.66563949779785592 0.97754546516815677 6.8721063435561183 37 47 70 2.2097915430103483 20 146 5 100 13 232
7982 0.65777588580313506 0.62275197720413855 4.0657950865655526 26 29 38 0.70543487543397843 20 236 8 244 18 216
7983 -0.037024419681022887 -0.59061768267403436 5.7546341142601145 52 82 117 0.43267003205710386 8 127 11 157 12 170 13 162 15 173 18 106 33 127 5 104
7984 -0.22918857383780025 -1.6294268536453087 5.9127803284235565 16 26 41 2.0105795936652875 6 112 8 92 11 114 12 117 13 61 14 123 15 129 18 85 33 119 34 87 5 105 18 150 40 160
7985 0.28764081594423885 1.7084991896938171 5.7250871273216877 56 82 113 0.5334611971847435 15 183 18 142 5 106
7986 -0.53323301999805361 1.9724754953375856 6.4976010897844247 35 45 62 2.5724371793957674 13 48 18 198 71 99 5 107 76 86
7987 1.1710074043394452 1.1247406941283886 5.8082937194960689 53 71 103 0.10688710956868791 8 123 13 137 5 108
7989 1.0627230880451326 0.62795408394232655 3.9582582069387748 52 77 110 1.5678395784933177 25 238 71 197 5 110 73 159 77 87
7990 1.3233025568770405 0.53047888327615089 3.656632715745384 84 106 136 0.1733059061670052 15 192 5 111
7991 0.69801253570919475 0.64394268951612899 4.0716192974378833 82 89 103 1.1426435088407101 15 101 25 247 5 112 8 118
7992 0.99295555236267485 0.65834806544530278 6.0994982202001236 81 92 115 0.65239214262075274 25 107 5 113
7993 0.16117285234241754 0.667347954028219 7.2613011069371751 18 32 59 1.6902228365173646 8 102 25 108
7994 0.8522445251475641 0.48242028968652872 5.8388775246661977 4 23 46 1.5796199976921492 8 234 13 183 5 115
7995 0.73442306608642904 0.18133231152452001 5.1973274447913242 47 70 96 0.74349510830444765 13 95 18 206 5 117 8 99
7996 0.57982295827433616 0.19985263209778673 6.0564675024372407 17 35 60 0.5376284719134159 8 112 5 118 13 94 25 76
7998 0.23737550383466088 -0.10177161670845059 5.6192214977796153 21 41 73 2.1253637780915446 14 34 15 191 11 193 6 33 12 29
7999 0.83106503618183925 -0.065299321582089537 6.4476849633218833 51 65 87 1.6048675201592917 8 194 18 182 25 168 5 121
8000 -0.5673289187900411 -0.19874356791727696 5.789439836571697 82 92 109 0.55061258193162954 6 125 8 139 11 112 12 85 15 122 18 126 25 123 5 122
8002 0.26208675948752969 -1.3775960808868977 6.3756185460707391 79 87 107 0.45587708733242072 6 136 8 132 11 116 12 132 13 112 14 158 15 112 18 131 20 135 25 130 5 124
8003 -0.042535063212996466 -1.2687029931692098 5.4299156415439285 8 23 47 1.2670570779500465 5 125 6 113 18 130
8004 -0.31368172593976795 -1.2324023561523452 5.3561182303013686 93 110 132 0.43658351530218287 11 176 18 155 5 126
8006 0.0040285591917788525 -1.1590443130063199 5.7630438355005671 95 112 139 1.30911437297682 8 150 11 117 15 115 18 136 20 194 5 128 6 199 12 144 13 161
8007 0.34165693060582791 -1.195120486376712 6.185827355400253 58 79 112 0.69691830845982372 8 130 11 171 13 145 15 116 18 133 25 91 5 129 20 89
8008 0.15614590672748047 -1.0467868843212191 5.406706913404328 100 115 139 0.94281591412082977 8 87 15 91 18 134 5 130 11 167
8009 -0.28538473918302071 -0.4668485942209662 5.8723526181881169 106 118 137 1.2841841420477931 8 137 11 104 13 128 14 173 18 90 34 144 5 131
8010 -0.55106978636158277 -0.74754043103121826 5.8539704226642515 51 61 78 1.7932881933741065 20 202 33 189 34 139 25 196
8013 0.57311899628716034 -0.66661469468593126 6.2489369378332977 11 39 71 0.69502626742957896 8 216 13 185 18 189 20 179 25 245 5 135
8015 0.47802459577264089 -1.2286464622894224 6.5253287819997796 19 26 49 0.42224931572878832 13 159 20 195 25 189
8017 -0.63625883325603427 -1.7552318592827243 5.8107087491139131 100 120 144 1.2512187233371888 6 144 8 162 11 113 14 155 25 222 5 139 32 224
8018 -0.32066902049325491 -1.6374951446922501 5.8873318464143267 132 141 159 0.62314626197160916 8 161 11 144 12 137 13 168 14 156 15 134 18 151 20 182 33 139 5 140
8019 -0.03704253141962844 -1.5189352030443948 5.9628626752225982 10 23 40 0.34505479210738016 8 160 18 223 5 141 6 204 11 208
8020 -0.16589196420053964 -1.3455513928837965 5.8823997017080245 13 28 50 0.40297094137230571 8 156 5 142
8021 0.1378582175505933 -1.3638951730001589 6.1847313119065239 17 34 57 1.067673651606466 8 154 18 154 25 186 5 143 11 134 13 92 20 178
8022 -0.073035784597097989 -1.2305294419410984 5.4076085037370518 88 106 133 0.47013574397217767 13 163 15 137 5 144
8025 0.062690345756909946 -1.2257176478019709 5.7600891928352205 114 137 170 0.34437695723939266 11 175 15 140 18 158 5 147
8026 0.27922710834988557 -1.2237040318265076 6.074565351762323 56 74 110 0.14753752036832896 8 131 13 119 18 160 25 126 5 148
8027 0.15501187769276481 -1.1224170359962979 5.6335053843766438 50 72 105 1.237033159026022 15 143 18 161 5 149 11 169
8028 -0.048145940585902117 -1.153120903373809 5.7411067017008497 1 15 43 0.87982954435805139 8 129 18 137 5 150 13 64
8029 0.30790705212253516 -1.165494009283534 6.1672437173245545 105 126 158 1.4323630277121193 8 179 12 143 13 171 15 146 18 162 5 151 6 135 25 125
8030 0.37016447606637232 -1.0799306914669702 5.8084699414710119 85 110 142 0.5646528288871806 6 129 8 200 11 165 13 143 18 163 25 89 5 152 20 126
8031 0.66379630001165668 -0.62737025748386843 6.1716070664457385 81 105 132 0.05625129080971196 18 143 5 153
8032 0.092080104578789804 -0.97296807013306374 5.5018351697073129 19 40 68 0.97886654237507131 20 199 25 191 5 154 11 161 13 175
8033 0.12768891399522214 -0.98171998772491564 5.3080819040467748 111 130 158 2.1362620873311582 11 148 15 180 5 155 8 146 15 150
8034 -0.31395394534760818 -0.98346394352831268 5.3561945672735023 53 60 72 1.4106498709988209 11 109 5 156 25 190
8035 0.11165728958064317 -0.93887066501251093 5.4285868710597844 127 146 174 0.42402861376570655 8 174 13 177 18 196 20 157 25 192 5 157
8036 -0.66588594325604888 -0.98525483046661577 5.8762088438949096 132 143 164 2.1955447420980643 6 119 8 173 18 194 33 156 5 158
8038 0.35179537645926662 -0.85777196370397302 5.5935885686811222 120 143 172 0.45028027777141072 8 171 11 159 13 180 20 158 5 162
8039 -0.100562353300458 -0.81324361198157402 5.3015415355954243 144 155 176 0.65941541401113957 8 134 18 139 25 194 5 164 15 123
8040 -0.05763734477743622 -0.78238043891498876 5.1970533848025777 16 23 40 0.27491804801869679 8 168 18 224 5 165 13 181
8043 -0.45579143907190234 0.13527675802179559 5.741597192729631 70 79 96 0.35317813385132091 8 193 13 192 5 170
8044 0.32416601224066777 0.098543701531578765 6.5446134114729899 13 25 42 0.56788274854383636 8 119 13 114 25 81 5 171
8045 0.57111180689265006 0.064168928675566811 5.4122077216563307 15 36 68 1.3408892591431418 8 191 12 193 18 212 5 172 6 165 13 193 15 199 15 193
8046 0.53595333483026952 0.043783446336119317 5.5202605416204316 102 119 149 0.42618746574308081 8 189 18 211 20 154 25 173 5 173
